# .PCD v0.7 - Point Cloud Data file format
VERSION 0.7
FIELDS x y z
SIZE 4 4 4
TYPE F F F
COUNT 1 1 1
WIDTH 1556
HEIGHT 1
VIEWPOINT 0 0 0 1 0 0 0
POINTS 1556
DATA ascii
-11.953936 39.087097 52.753586
-11.092298 43.906017 4.7071118
-12.300599 -36.202084 29.84684
-12.043793 64.326439 55.039436
-12.3728 -91.536797 91.852097
-12.3639 -88.432999 96.3339
-11.302901 6.7861471 96.439529
-11.9871 -90.75589 104.69622
-11.748727 -89.266243 94.512749
-11.4952 -45.885475 19.897608
-12.289 -91.4468 110.77
-12.2889 -82.544701 79.300201
-12.2834 -90.356903 96.820602
-11.951852 41.348492 93.722557
-10.799216 -49.111267 2.8357742
-11.433559 -1.6554337 96.202721
-12.073199 62.366905 41.03569
-11.335855 -58.412384 1.3572837
-10.38207 55.449486 25.293093
-12.22115 -83.381447 82.843246
-12.163625 -90.179146 105.44981
-11.655309 -90.749062 88.595085
-10.360565 -39.371151 10.651182
-11.132834 -80.99411 87.618385
-10.891362 -85.57383 82.218315
-12.219978 -87.397278 83.778412
-12.145062 -90.960625 97.841591
-12.12267 -90.832451 99.49987
-11.517451 57.509739 18.169815
-11.10582 47.39389 0.84282649
-11.427801 -91.29821 111.67497
-12.045671 -87.809357 103.08243
-11.061192 -21.432039 95.546585
-12.1235 -92.781898 94.9674
-12.106323 -89.352074 89.673447
-11.640142 66.136879 29.545748
-11.982664 -87.782646 95.370789
-11.357613 49.445 35.50882
-12.000381 -89.870056 92.570168
-11.363614 -36.31089 19.74979
-12.039491 -90.407364 90.737511
-12.06 -92.010803 92.598701
-11.645024 65.308632 64.09021
-11.317378 -45.94136 13.370247
-12.0435 -91.027397 105.88
-12.073993 -76.836288 99.227219
-11.065492 -56.080189 0.94631737
-12.316266 46.519138 8.1097908
-11.897548 31.280422 59.186863
-11.810593 18.550341 52.91304
-9.9595098 54.629864 11.47057
-11.69745 -67.793434 101.92496
-11.693009 -72.838699 97.053497
-12.838221 -39.894459 8.0079908
-11.898798 -90.612762 103.33594
-11.842184 -31.704145 51.599358
-10.652686 -41.254108 8.1896105
-11.943 -89.7621 95.920799
-11.169461 29.340189 59.301308
-10.56724 -47.681396 48.20636
-11.915298 -90.737228 106.08824
-11.700549 -1.8851604 49.168293
-11.207235 32.24921 95.179527
-11.181491 -34.780659 44.641602
-11.8384 -87.821198 88.448097
-11.756871 -88.814194 104.64172
-11.282017 -87.95018 104.67652
-11.166772 65.881699 19.622793
-11.578668 -91.564842 90.567291
-11.8016 -90.542397 91.497498
-12.138432 -28.662752 94.304642
-9.6498241 -37.623898 97.640739
-11.317041 -74.389297 96.083977
-10.910915 34.110817 59.41835
-9.8463449 -34.755787 96.35437
-11.294953 -73.388428 101.95026
-12.031602 -84.587753 109.26627
-11.122981 -91.708908 107.08932
-11.513285 -47.282436 45.168545
-11.588983 -74.49054 100.23654
-11.061186 -71.420822 103.33901
-11.573733 -78.818909 92.99498
-11.335796 61.173065 5.0012574
-10.911 -58.456348 3.3520353
-11.085487 -45.824257 26.577131
-10.357415 -60.713898 101.0866
-10.428836 -78.205399 89.232216
-11.6064 -89.465897 95.1493
-11.134159 -37.805531 28.297821
-11.565286 -91.322319 105.42229
-11.086475 -37.836555 33.904987
-11.254862 68.305313 26.548267
-11.5802 -83.862701 79.689102
-10.31813 44.610703 94.279602
-9.7420321 -81.215569 107.73576
-10.675837 47.643654 8.3168373
-10.832695 -85.231087 86.10144
-10.11063 -56.309929 101.73646
-11.5301 -86.977501 82.596397
-10.898273 65.357491 78.109756
-11.441736 -89.733154 105.76823
-11.584432 -92.436974 100.14899
-11.5127 -92.978401 93.2995
-11.49714 -92.906326 98.809593
-11.13256 61.93454 37.156036
-10.748053 64.800537 14.738714
-11.221748 -92.613846 109.90998
-11.4137 -87.7005 87.399803
-10.511768 56.416405 22.168316
-11.547953 -91.480957 104.1712
-10.358303 -68.387642 86.99659
-11.576588 -33.267162 49.240665
-9.6432056 -64.483589 78.956474
-11.074879 -45.607914 33.056057
-9.9871721 -85.450623 110.18786
-10.982127 -90.769936 94.344269
-11.203359 64.79953 80.948135
-10.603576 -18.532368 49.883877
-11.3354 -90.979401 92.2481
-10.862174 -77.150757 94.611008
-10.830994 -93.126968 88.560982
-11.2759 -91.142799 106.939
-10.374562 -91.382454 108.56207
-11.235806 -89.640404 85.847618
-11.2399 -92.030602 110.656
-10.845324 -44.057995 6.9992385
-10.771019 -91.67202 104.34494
-10.706793 -93.617622 94.484505
-11.1963 -88.944504 84.466698
-11.1927 -93.049103 96.182701
-10.939382 -95.440117 99.02433
-11.1847 -93.283401 97.104401
-11.1598 -82.6325 78.9291
-9.8042364 -66.147751 82.554085
-11.13601 -86.582603 82.120697
-10.767357 -78.858421 103.68412
-10.632904 13.999843 51.058994
-10.740767 -92.597092 102.40494
-10.916538 47.861698 1.0434142
-10.135543 45.864033 46.580086
-10.836186 -87.95726 82.543442
-10.038692 -52.339924 9.1947289
-11.0874 -92.814301 95.25
-10.257319 -86.09185 85.40567
-9.9065733 40.007915 53.972485
-9.3729525 -53.253456 1.9295801
-9.9788151 -62.070225 71.626389
-10.284629 63.227348 10.785929
-10.340614 -28.646841 95.822784
-10.5486 -31.082399 49.967567
-11.291123 -89.173409 87.318024
-9.7988043 -50.712154 3.2110736
-10.418716 49.525551 38.533112
-10.719477 -5.8387151 96.464607
-10.9426 -90.963501 84.4189
-10.681431 -91.988899 106.57403
-10.764392 44.125805 3.6590772
-10.529572 31.913889 60.335903
-8.6093645 -47.831383 101.01485
-8.2415619 -84.149124 110.18212
-9.5632353 56.672703 17.603157
-10.513636 -93.770195 90.864227
-10.8833 -93.103996 90.354698
-10.8806 -91.2342 107.244
-11.755592 54.973255 90.224251
-7.806592 -85.625198 82.437309
-10.83558 -74.548401 88.712761
-10.836 -91.642403 92.890099
-10.8313 -92.983299 110.073
-9.847002 -84.010223 82.385994
-9.6612206 52.092327 9.7868023
-10.8073 -90.265404 83.798302
-10.179903 67.174057 21.676746
-9.7786818 -44.458954 99.776024
-10.7746 -92.457298 94.341003
-10.80611 -76.415977 91.97979
-9.6221437 -91.995224 84.758759
-10.334214 62.041042 44.109825
-10.095491 68.323341 26.745628
-9.7734537 48.980534 43.892315
-10.071824 -35.621391 49.698147
-9.2230463 -87.73806 109.7971
-10.428583 -90.577744 86.082512
-8.9192381 45.224655 0.37886107
-9.8940277 -38.160873 19.455519
-10.354275 -42.272923 28.99493
-10.356343 -33.131069 50.661846
-10.6434 -90.234497 106.872
-10.178535 -44.631336 43.596188
-10.247897 -91.944298 111.05257
-9.6544352 18.172159 97.386925
-9.0788202 -57.941463 58.432838
-10.955976 -46.894432 11.426214
-10.259647 -70.429108 84.800911
-10.5866 -92.031799 93.539001
-10.002518 -48.431213 3.4095535
-10.272835 -40.659756 27.677628
-10.5656 -91.7789 107.304
-10.235278 -91.543427 107.50573
-9.5820417 -43.213436 15.135956
-10.5544 -89.450302 83.110199
-10.5357 -83.375702 78.653297
-9.8415403 -93.431648 104.93931
-10.5095 -88.778 82.498596
-10.5091 -82.246696 78.237801
-9.8811541 -76.897415 87.701225
-10.543664 -91.367462 83.260437
-9.8174181 65.511932 29.923693
-11.216371 -15.597871 95.623619
-9.8872757 -95.141068 102.706
-9.6462679 -1.0988178 97.071671
-10.468059 -89.239532 81.469185
-10.386665 -39.757412 34.901783
-10.353329 -88.144035 81.780434
-10.361155 43.310955 3.3664994
-10.155964 -78.527863 105.5771
-9.640419 -95.079498 92.066223
-10.4081 -91.271004 107.33
-9.5798941 61.271553 36.929733
-9.9053745 -86.530029 81.103889
-10.3642 -82.1007 79.767403
-10.281833 -93.320747 92.78373
-9.8424244 0.37298608 48.6698
-10.3415 -90.400002 81.560097
-10.3147 -89.720703 80.986801
-10.056113 -45.367313 7.918859
-10.3028 -91.152702 82.148499
-9.8531132 48.617954 8.8079805
-8.9085712 -78.472977 86.663139
-10.106494 49.12867 8.1970844
-9.8676577 50.684399 35.370472
-9.3840446 -57.258717 1.612167
-9.5606022 -88.237114 84.41436
-8.9464016 27.860987 97.310768
-9.5070181 52.258163 32.019585
-9.7967882 -70.230431 105.12675
-10.2276 -90.329803 107.136
-10.2245 -88.694603 80.982903
-9.7515001 -93.030983 105.72475
-10.2162 -85.425903 81.015602
-9.0191517 -49.129185 50.78223
-7.6701865 60.570087 87.78714
-9.7279825 -71.769157 83.895958
-9.1439104 -20.616117 49.481133
-9.7444286 -90.143066 84.885719
-10.1452 -91.749397 108.047
-8.6979046 -87.217751 107.82641
-9.6766558 -42.322041 41.376545
-9.6329975 34.927155 96.462334
-9.4688339 -92.812988 106.80257
-10.0814 -89.131798 80.459396
-9.3720503 -98.607536 99.825027
-9.5546694 -96.858727 87.535309
-9.6280994 -97.761772 95.406952
-10.221123 -96.180984 97.086983
-10.0233 -91.2164 81.268402
-8.9913483 64.109238 29.375969
-9.3327789 -55.707848 5.6965113
-9.2286634 21.039454 54.036774
-9.9872503 -90.491501 80.696602
-9.9813499 -91.924301 107.434
-9.9316502 -87.660698 81.075798
-8.3134642 61.290283 7.1989942
-9.0158663 -48.658695 6.5002017
-9.3637009 -39.877335 14.120128
-7.6796842 -83.342857 83.547104
-8.4395571 -98.348312 83.891174
-9.110465 -32.489174 49.387157
-9.7664003 -88.293701 80.708099
-8.0371828 55.967045 2.1329234
-9.7363396 -89.866699 80.122902
-9.745471 -90.520882 107.1394
-9.2387209 -68.358009 80.678642
-9.197053 -40.075546 47.205898
-9.4755831 -92.533669 108.17699
-9.3306284 -41.419647 20.496428
-8.7463636 -45.173233 7.4072561
-9.6457663 -47.274937 9.6730251
-8.8603001 34.519253 60.808414
-8.4430065 -10.247346 48.22002
-9.6112499 -88.669296 80.051003
-8.1066666 56.118595 26.39711
-6.5352697 17.235199 51.478722
-9.0913363 -97.446236 96.122406
-7.8842602 -79.252983 108.61421
-7.3003516 -83.792809 83.020073
-8.6583319 -51.278141 51.644787
-9.4784374 -96.36187 97.136383
-8.7122536 -40.220245 50.654232
-7.8134727 62.67263 83.989708
-9.4468327 51.082417 42.546143
-8.7848139 67.69696 25.905867
-8.4141064 31.910685 61.010368
-9.4163885 -96.041626 96.137054
-9.2414227 -74.211929 106.99376
-8.5838289 -72.511208 82.62693
-9.4762802 -84.777298 80.338203
-7.2313919 53.089428 1.7788249
-8.417325 43.345741 2.7047179
-9.43783 -91.594101 84.275002
-8.7480888 -43.762028 47.253841
-8.9230366 43.163475 0.906214
-9.2934847 -96.930611 98.240974
-8.6225119 64.992722 73.119812
-9.0504751 -93.11763 83.600372
-8.9024696 45.775257 6.5041056
-8.323535 56.889996 22.489927
-8.1295595 43.745495 53.342407
-9.2482367 -88.960541 82.852547
-9.2556658 56.751892 90.812286
-9.1775208 -90.614449 83.104507
-8.8303385 -38.058189 51.271198
-8.340374 -90.878586 109.88734
-8.2641106 59.436844 4.9285827
-9.2684097 -87.215202 80.534798
-9.0064516 -41.689823 15.128335
-9.2612896 -82.872704 85.065498
-8.8294735 -84.496651 79.936363
-7.8615789 55.920746 13.756433
-8.4982738 64.755074 15.415247
-8.3381472 29.13147 59.395576
-8.4436703 46.607227 50.392937
-9.2151003 -85.889999 80.422096
-8.9160089 -87.418137 83.070923
-8.9684134 52.566875 35.063545
-9.0170717 53.147751 42.553616
-9.1468258 -90.149994 82.461113
-8.5091791 -46.640499 8.6391029
-9.468092 -99.093147 97.25621
-8.3654432 -97.49279 91.044662
-9.2582207 48.957432 0.40175733
-8.2898865 64.167374 60.397415
-8.7163191 -45.141029 49.410675
-9.2789974 61.130566 43.952377
-8.8127518 -13.609742 96.976532
-7.5150204 -60.494579 63.182697
-7.5266328 62.014183 10.791041
-6.4848132 -16.452559 48.395897
-8.4061241 -14.40645 48.667114
-6.6277332 40.544998 58.765823
-8.395771 -62.018898 104.05341
-8.930233 -53.49918 4.1573811
-8.7502136 60.137974 37.042717
-8.0706491 -87.450836 110.55782
-8.99228 -82.832199 77.814003
-8.9697552 -82.216537 77.763481
-8.6151381 -44.758957 50.590714
-8.5670357 -97.371422 99.063255
-8.4591789 -95.593353 104.53916
-8.7173014 58.840656 41.190865
-8.1372614 -43.481266 100.39725
-8.7533312 -90.347557 80.961777
-8.3324509 -87.89933 81.623878
-8.9322958 -95.814468 95.227386
-8.3454084 -67.179375 77.498985
-8.2822247 -75.335793 108.18874
-8.9406099 -40.607666 10.531435
-7.8435225 -5.8469934 48.023743
-7.6216621 -88.513741 80.453896
-8.2199984 -43.208874 11.415216
-8.6827879 -93.356544 82.455254
-7.4375219 56.732712 27.645494
-8.3875055 59.010265 35.989067
-7.8828039 -33.703598 49.17625
-7.5607934 57.105476 18.664762
-8.6155462 -91.157631 80.482414
-8.0781622 -64.160484 73.514427
-8.406168 -88.139069 107.42426
-8.0625505 -35.497597 50.314743
-8.7987518 66.360191 21.523472
-8.3876534 -93.374619 81.292244
-8.6410561 -98.355804 79.009087
-8.283843 -43.421646 51.102936
-7.275445 48.611786 0.79393566
-6.6666636 -76.248375 83.988182
-8.5351601 -81.884903 77.424103
-6.8074389 37.413025 97.663979
-8.4294739 -95.215904 80.417946
-8.2292051 -91.241547 79.501083
-7.9197659 54.014484 47.974857
-7.883287 -44.122677 8.2311134
-6.9697022 9.7806025 49.230068
-8.5071621 -92.858604 80.398109
-6.7214041 14.785385 98.417458
-8.320467 -26.026312 96.832253
-7.5623136 56.80127 30.043793
-6.8431234 -62.007561 105.53094
-8.1411314 58.799427 45.912758
-7.7041683 61.569981 51.602009
-7.5946922 -70.128311 79.922249
-7.3792119 -93.845551 107.04807
-5.8558459 -61.503757 67.024406
-8.2848501 -84.328903 79.682999
-7.8054209 -33.314789 97.377892
-7.6805015 -100.68765 85.994919
-7.0766172 -100.40218 89.088104
-7.0459695 -92.846977 108.08149
-8.2562265 -95.676384 94.683365
-8.2054796 -86.841202 82.321404
-7.5815539 -100.30071 100.82679
-7.5712156 -96.016716 76.626404
-7.2045054 62.306774 28.063059
-7.8221507 -100.80883 98.495789
-7.7491412 -98.376762 92.111275
-7.3527184 29.349997 98.152649
-8.0719318 -99.376518 77.593102
-6.6285281 -91.394028 109.31924
-7.8145809 -101.9874 81.778824
-6.7723026 64.450554 68.662071
-7.3158007 44.0158 0.90992457
-6.9374661 -25.742992 48.512363
-5.411468 -62.251442 68.8592
-7.6824136 64.761299 78.366188
-3.9495087 14.336097 49.885258
-7.2848215 64.710968 24.729153
-7.4587212 -95.642632 94.034485
-8.3273525 49.680542 94.227646
-7.6446915 48.819019 8.6960173
-7.3549972 63.551003 59.293465
-7.131752 53.910118 10.023843
-6.8832836 -84.481766 82.349838
-7.88098 -81.687599 78.7528
-8.1933737 41.688919 54.804996
-6.7135067 -80.873482 109.9893
-7.73631 -97.560898 99.397499
-6.75037 63.373665 15.163889
-6.8953614 -97.905983 99.720123
-6.4051285 -55.307133 55.310799
-8.0332642 -55.554493 103.52955
-7.1564584 -65.164978 73.639091
-6.9653749 50.764408 52.288021
-6.6843882 59.442421 52.983028
-7.611804 55.691639 2.7626998
-7.5853801 -87.425697 81.117798
-6.823163 -100.92133 97.142509
-7.5497108 -36.782154 98.626488
-7.5794263 -98.860298 97.503662
-7.428122 -92.26796 82.473579
-6.9278603 -67.204292 75.960983
-6.6213555 -98.210495 95.095383
-7.0303144 -83.063446 80.738968
-6.9479814 59.668724 6.6168723
-6.5570812 58.564983 23.30345
-7.4288301 -89.340302 80.028503
-7.4074001 -86.4291 81.772202
-6.7134008 60.012821 28.34108
-6.4021831 -104.18142 78.408455
-6.2163658 57.311508 91.34903
-6.9766588 -103.49155 83.625443
-7.2364821 -94.277466 75.114227
-6.2517061 -41.650391 49.816357
-6.3690219 -95.923172 75.015129
-5.502532 -10.836349 97.856224
-6.585422 49.051243 7.9412246
-6.384007 1.3041158 48.090668
-7.314517 45.470242 5.0745225
-4.6414337 -83.424911 82.397446
-5.3250866 -99.503227 94.175262
-7.17133 -82.4991 77.448997
-7.1917906 -4.4776659 97.765877
-6.4655104 -96.07843 105.8926
-5.9186621 -72.948326 108.72619
-7.10642 -81.947098 77.0215
-5.5882783 64.89296 71.212631
-6.4809141 -90.348686 78.884354
-7.0786939 -94.604324 81.685066
-6.5695567 46.811817 0.94031435
-5.4775476 -59.794788 61.087788
-7.1200857 -88.986206 110.22278
-7.0232 -84.225502 79.267303
-6.9289784 50.857067 1.991028
-6.9924784 -95.127007 79.232368
-5.1178236 64.856316 77.332222
-6.6351204 34.378593 61.112049
-7.6751204 -90.964523 79.097191
-5.9941168 23.825546 54.957977
-6.583806 32.168015 60.846355
-5.8888135 48.411743 55.717796
-5.834578 39.439911 59.988201
-6.3977466 46.433502 4.0950108
-6.274025 55.371384 53.510315
-6.6827998 -81.547203 77.002701
-5.9399981 58.002087 7.3121753
-5.8129096 -96.732872 81.40036
-5.6902657 -90.466164 81.138748
-5.8309035 -92.201508 80.672836
-6.5645161 -95.689072 94.235947
-6.4685888 -85.257179 81.900284
-5.8494639 61.988331 60.087658
-6.5909901 -87.131401 80.825897
-7.3753757 -47.574665 50.789318
-6.303299 -97.778015 80.15873
-4.5013733 -46.274712 49.769608
-6.0283341 -105.3167 80.810844
-5.0974422 -97.89563 99.191544
-4.2783227 -52.607483 52.267426
-6.9143248 -78.635635 84.878456
-6.3776598 -86.149902 81.473
-4.5856709 -102.8543 98.012871
-5.69452 61.581932 23.426334
-5.8547816 65.349144 73.706764
-4.8556247 -37.564899 47.981995
-6.0112829 53.52042 4.3337374
-5.8379726 -70.401031 79.955482
-6.2816601 -81.433296 78.408997
-5.63767 61.220318 13.989809
-5.3615785 -104.02085 86.783989
-2.0269296 -88.925323 112.15144
-6.0153837 -100.50784 77.923897
-5.0419478 -92.528725 76.491089
-5.8135285 -23.711409 97.281143
-6.2722106 0.22811548 97.889061
-3.8399673 63.871685 81.079147
-4.3195753 62.190083 85.868042
-6.1196365 62.937138 21.88109
-5.5907555 60.147491 89.464561
-5.8078675 -101.41832 100.87304
-4.8067651 -33.233852 47.441086
-3.5092428 52.301476 94.923569
-5.8421311 -101.02863 75.60759
-4.3560953 -102.78322 95.845177
-4.8452091 -105.9233 84.202469
-5.8873315 59.714138 22.615112
-5.7012534 -32.421471 97.863564
-5.9972401 -97.780098 99.417999
-5.7518082 -102.66338 75.752541
-5.5347538 -92.647812 81.340652
-4.8547177 58.163269 92.551064
-4.9951696 56.807072 57.2896
-6.030097 -57.201481 104.98566
-6.5969529 -40.33054 99.807686
-5.8533802 -82.384804 77.327003
-5.5205026 55.559448 7.5350933
-5.720252 -95.835258 94.376511
-4.7798867 62.341835 65.39579
-5.5513353 55.144512 9.0050526
-5.6397872 -96.874626 76.131546
-4.7194543 54.677944 93.442223
-5.8173456 57.833179 15.125857
-4.5702739 -81.694389 83.160172
-4.3170123 -48.086121 103.21297
-5.8625212 -100.28302 75.094223
-4.2790585 -77.320045 110.70442
-5.6638498 -95.568504 74.75219
-5.0691748 -98.331505 95.882683
-4.1885047 47.758003 96.372505
-5.3068709 60.148331 15.758908
-4.6587481 -100.72024 92.909134
-4.8040214 -100.66028 95.447693
-4.746479 -100.54917 73.354225
-3.516541 -94.553017 74.06002
-3.9998364 63.811977 68.415771
-4.5814395 -104.06446 78.216499
-4.9608984 -75.6409 83.306259
-3.8145473 37.502052 59.917637
-4.99018 -95.520294 76.219322
-4.5460892 53.051384 57.606651
-4.786056 -96.089958 94.744202
-4.1367855 -79.659943 83.416161
-4.2356758 2.1044776 98.152206
-5.3527298 -83.917297 79.309502
-4.1429877 -107.00659 80.789307
-4.9674282 -103.00277 79.432289
-0.18431795 -91.545227 111.55115
-3.6778467 -56.714001 56.210941
-5.0398736 -98.428223 73.463623
-3.6195934 -69.207199 79.198166
-4.8377814 45.917942 58.372787
-5.2675328 -99.141685 96.135551
-2.6488018 -103.01072 98.496864
-3.5621359 59.374126 63.02026
-5.1900802 -91.786629 82.48484
-4.8476815 -97.14933 80.004669
-3.162981 33.173061 98.854111
-3.7427056 -107.12135 82.93763
-4.0274386 -39.085522 99.913536
-2.9349537 7.9774132 48.447765
-4.8366647 -99.75766 73.28141
-5.0597 -86.0355 81.468697
-5.1780591 -93.030022 78.126854
-5.0642986 -98.940697 73.466248
-5.0438299 -97.557701 71.172302
-4.3236384 -101.37724 79.192024
-5.0233498 -96.971497 71.170799
-4.4548163 -7.5756159 47.629822
-4.39463 -93.846535 79.158615
-4.8977699 -83.243301 79.411903
-4.8977699 -81.623497 76.553299
-4.041678 62.225357 92.545837
-3.5501235 -40.503853 47.831203
-3.9588952 -95.499489 107.54566
-4.8326602 -98.241203 70.999901
-4.8192611 -99.419846 73.229065
-4.8112102 -97.974197 70.917198
-3.8368111 43.026863 59.957073
-4.5764408 -97.480309 70.643608
-3.9672346 -96.584473 95.867722
-4.570291 -96.894966 70.637466
-4.7480502 -84.201401 82.188202
-4.7480502 -82.346199 80.245598
-4.7480502 -81.308701 76.8433
-4.4529552 -97.943199 72.911499
-3.5950654 -100.77708 76.653084
-3.8268697 -99.881592 79.332512
-4.6846499 -98.965103 71.130798
-5.538909 -66.90731 75.18927
-4.0916138 11.803872 98.633156
-4.4477835 -101.93716 92.350365
-4.6466098 -81.282402 78.440399
-2.7341719 30.17275 57.289787
-3.836957 -95.672653 73.105057
-4.6137638 -100.1747 73.174652
-4.6682348 -98.606544 70.883888
-4.2856355 -97.572861 98.309479
-4.2584109 -102.74984 75.179848
-4.5575294 -98.354408 70.679337
-3.8540449 62.908356 91.267006
-4.392262 -98.018341 70.543251
-4.4483047 -99.877808 71.673744
-4.1290331 -97.003876 79.697067
-3.6474235 -47.882015 50.091717
-4.3657875 -99.554985 71.35833
-4.4435749 -96.082939 70.596069
-4.4394717 -92.619164 80.752525
-2.9015095 -103.19947 75.971733
-3.9329472 -97.475204 78.364258
-3.0466754 -106.78269 78.6353
-4.5555773 -97.447952 72.939034
-4.4149699 -95.534302 70.766998
-3.6304264 -99.87619 70.722305
-4.2505531 -96.451019 72.908203
-4.0262804 -94.812225 70.98069
-4.3016863 -90.010742 82.519058
-4.4536514 -93.074989 79.499092
-3.9949622 -96.448647 78.941826
-4.0891199 -104.02984 79.376335
-2.6479971 -66.631645 76.649117
-3.9955232 -94.464722 71.031006
-4.0550051 -94.024284 79.722382
-3.2217848 -99.976135 72.034592
-3.2534695 -106.49072 88.759613
-4.1054168 -100.26577 71.585487
-4.3157377 -100.73167 71.911583
-3.2637455 -94.980576 73.252594
-3.9554389 -90.760612 80.250305
-3.0234108 -99.481865 71.809601
-4.2227979 -97.600609 70.267113
-4.2556872 -101.05849 72.296379
-2.6229784 34.568188 59.124977
-2.2248998 -99.205276 71.414444
-4.1023769 -97.038399 70.144745
-2.5612013 -98.577736 71.447113
-4.0914288 -95.666954 70.321953
-3.1202917 -101.92533 73.058548
-3.8194401 -97.114647 72.448219
-3.4186783 -92.288155 79.164062
-4.6954718 -101.59041 76.192802
-4.0290861 -99.189362 70.572777
-3.4442039 -100.45976 72.359497
-3.9466608 -98.758728 70.336746
-3.8774581 -61.192177 106.55403
-3.671067 -99.057602 77.748238
-3.2573423 45.94577 59.877811
-3.9747949 -97.069885 97.236862
-3.4976506 -94.170845 70.388901
-3.4364626 -93.610794 71.254982
-3.1976206 -96.67997 69.609627
-2.9151444 -88.251923 84.143463
-2.448163 25.08181 54.167408
-3.6197362 62.39893 88.218147
-3.8006938 -100.16605 71.144356
-4.619071 -66.08831 107.77461
-3.6223099 -98.062965 81.537849
-2.3702228 -99.603302 103.40623
-3.3262343 -102.77623 79.082214
0.7143873 -4.5324717 47.422955
-3.7419844 -94.932922 70.159821
-3.6692617 -17.904446 47.826
-1.4654496 67.017601 71.448563
-2.9292727 -71.70282 80.257523
-1.8520179 -101.73711 72.30481
-4.8959484 -85.201721 81.940414
-3.3271208 -96.465263 78.42984
-3.8768191 -97.603668 79.075813
-3.6552758 -102.00246 79.306686
-3.3641624 -95.765465 69.778923
-3.0463953 -104.43806 92.523521
-3.6665266 -98.02478 69.877808
-2.2468069 45.123135 97.5336
-3.5114975 63.730324 93.631607
-3.0905302 -93.573479 72.557762
-1.7098018 65.19236 78.345131
-3.1453259 -101.3088 71.579712
-3.2451985 -93.842072 70.54454
-1.6111394 -7.2055907 47.382549
-2.7251844 50.608063 60.453136
-2.5691359 60.9729 65.739632
-3.0248644 -102.02968 75.50824
-3.2114847 -99.609619 70.24971
-3.8673036 -93.39357 81.104805
-3.1170535 -99.137344 69.802483
-1.5032185 -60.185951 62.109951
-2.217097 -97.707771 69.112427
-2.9862351 -98.691223 69.533913
-2.6365008 21.393341 98.95137
-2.9385238 57.613258 94.513794
-2.9925096 64.145363 90.027695
-1.0093316 -90.804451 78.109833
-3.3108599 -94.065697 71.860603
-2.0157568 56.218388 62.758591
-3.1828616 -95.219406 69.715508
-3.0398722 -29.453703 97.649628
-3.207021 -104.89941 84.085968
-3.2381787 -95.251999 73.04911
-3.1852922 -94.21315 71.074722
-2.6656601 88.156326 93.615265
-3.5141292 -104.92976 79.220291
-2.5482297 -102.18659 80.881599
-2.9977615 85.533844 92.669792
-3.1333003 -92.362473 80.697929
-2.54988 40.56469 60.21978
-2.1578329 -105.83143 77.896317
-2.4626377 -93.33075 78.718857
-3.7889464 -106.05273 83.940773
-2.8009107 -101.07072 71.102089
-2.7573869 -100.52303 70.604622
-2.0072122 -103.17348 73.698593
-1.667747 -102.53256 72.327965
-2.2723908 -109.74003 83.230011
-2.7698627 -98.22316 69.37793
-1.57891 -102.87436 72.857826
-3.0768163 -94.587341 70.014984
-2.7380085 88.211205 91.678055
-2.7749498 -106.15685 84.974136
-5.0967331 -34.330723 98.53186
-2.8118184 -94.594086 73.550438
-2.3546534 62.35606 86.700684
-2.0072846 -23.489264 46.88694
-2.80514 -94.235603 72.551697
-2.9109876 -91.650269 83.669098
-2.9683874 -94.698082 81.523056
-1.5522015 -97.689178 71.595497
-2.5387149 -96.091202 69.465691
-2.426563 -105.30444 78.684616
-2.3771069 -104.42091 79.052589
-2.2265193 123.60951 94.056419
-2.9265554 -97.589485 80.73793
-0.43683434 -83.039391 111.90662
-2.1329436 -99.878403 76.539803
-1.3372933 -90.38665 80.652588
-1.9641668 -94.151039 71.774597
-2.3539159 -104.33165 79.236961
-2.4094601 -89.109055 81.889984
-0.327613 -106.16325 76.76339
-2.0201397 -86.663597 83.053665
-2.4560041 -102.31472 76.520485
-1.9062604 -107.59119 88.215904
-1.9969196 -100.95974 72.002121
1.4238529 -38.122559 99.790932
-1.6672629 -102.17219 71.750992
-2.2168715 -100.32849 70.036766
-1.753027 -95.648331 72.675331
-2.0992186 -94.279823 70.444008
-2.1523321 -94.266884 83.121109
-1.3006632 -36.540409 47.014328
-1.9848303 90.014687 94.382858
-1.7323529 -96.214645 72.328629
-0.58294189 -91.148499 81.003174
-2.0749686 -45.200581 102.55891
-0.99214756 -104.88575 75.992516
-2.5314167 -101.78297 77.707809
-1.5388414 58.372402 64.379066
-1.7377973 -96.875832 71.966057
-1.8496785 124.66179 95.045982
-2.10741 -99.408508 78.840439
-2.0249088 93.776978 91.114731
-1.0283487 -105.43984 82.886635
-2.702157 -75.003563 110.48591
-2.2079103 144.77307 94.732155
-1.8703749 125.83799 93.264145
-1.9093649 -98.365303 71.487335
-2.2035799 -96.786697 69.220802
-3.4051814 -108.8121 83.216553
0.035604391 64.366547 82.086884
-2.1314662 -99.722313 71.600365
-1.7017583 -102.52457 76.2267
-1.3324614 53.219887 62.639912
-2.0806046 -100.30838 71.758575
-1.5989082 -99.315475 69.388397
-1.3179126 47.382721 61.258526
-1.8041167 -99.808838 69.677582
-1.0940943 -101.12844 70.539619
-0.97004676 -106.76408 83.52137
-1.9150877 139.95926 95.675133
-1.8803532 -94.232216 72.451279
-1.5321171 -96.530327 80.080566
-1.8241148 -97.943466 79.156319
-0.53040457 -105.79086 83.282028
-2.0895381 -98.306404 82.868011
-4.4604454 -82.970963 111.58337
-1.4779524 147.58702 95.960426
0.017207559 -104.54249 79.929893
-1.631959 -104.37806 77.760178
-1.2521521 -55.409168 55.576042
-1.3741342 -94.4702 71.131187
-1.633732 -107.69203 81.590317
-2.257829 -43.263691 48.209877
0.080246814 -103.6456 77.049011
-1.5626016 64.167213 88.426186
-0.17227277 -86.381874 80.777725
-0.94958192 -96.22197 78.577209
2e-08 -107.66345 79.326157
0.71597379 -98.479271 105.01186
-0.06085946 24.381401 53.413677
7.3360003e-05 64.606689 66.721565
-1.337628 -93.961479 79.936073
-1.3405381 -95.355507 70.019417
-0 -82.294861 82.432861
-1.3978496 -95.940147 69.65239
-1.2747834 145.21509 93.606972
-1.3994994 54.788948 95.51783
-1.5796 -96.322899 69.330498
-1.4006348 -101.5788 76.718811
-1.5139242 68.143951 89.272125
-1.5814559 -96.866638 69.082146
-1.9416738 -103.93535 76.419624
-1.3082807 -72.118195 80.075806
-1.481584 -97.69622 69.136429
0 -86.591148 84.206947
-2.4035435 -79.84478 82.629036
0.25911835 -97.745804 80.337181
-1.1696516 -101.78468 71.193443
-1.0916746 -98.770027 69.186462
-0.40550971 -101.86509 72.205421
0 4.2810502 97.930237
-0.73208898 -104.03036 77.226189
0.86690897 64.709587 79.749649
-1.1585819 152.86774 95.295982
0.24661666 -87.386696 112.41712
-1.174857 85.135422 90.175545
-0.01162513 -32.311554 47.077362
0.00052941003 62.305565 84.434921
-0.0058757402 -101.91254 77.134155
0 -59.661102 62.277168
0.018700849 -48.421646 50.687817
-1.0240945 92.972359 94.881584
-1.0625401 100.86744 90.8545
0 -88.241882 81.841827
-1.6965032 66.75872 75.286301
0.0106253 -51.994957 52.51326
0.0099122496 -94.311218 71.742805
-0.45633516 152.87218 94.26931
0 -42.047668 48.264606
0.89874601 61.894444 86.170349
-0.35338902 -94.939621 70.367828
-2.1959751 -103.84563 94.921112
-0.39234945 123.6313 95.70742
-0.37594715 127.30672 92.415253
-0.46267813 139.79462 96.321228
-0.0487408 -96.774818 69.288956
-0.27301472 -98.79895 71.368423
-0.78492099 -99.477203 71.380699
0 -100.16145 71.487946
0.88059127 -104.83989 75.794495
-0.23593593 -102.3177 71.905441
-0.00368017 -99.984344 69.525169
0 -100.69583 71.644661
-0.13308263 -99.386391 69.272064
-0.04633287 52.631367 62.115795
-0.71030599 -102.795 72.467003
-0.01801369 60.706421 65.007195
-0.48182595 -109.95084 82.039268
1.0147566 -99.092003 77.547386
-0.65105301 -103.171 72.994698
3.1245644 1.6662555 47.872772
0.01159486 -75.4842 110.39098
2.5332472 17.408064 50.856709
4.1194749 13.038025 49.521294
0.53543693 152.89151 95.810486
1.1211855 -109.42592 84.744034
-0.019120749 -103.23096 96.599976
0.59875703 -103.93412 77.284019
-0.7206704 -104.85196 77.720085
0.0020345999 -104.35596 77.596268
-0.55766749 -108.90245 80.344139
-0.20507748 -105.15567 77.505829
0 -101.40756 82.26844
0 -103.234 73.032997
0 -102.86 72.5075
0.62224948 -101.84612 71.203705
0 -101.343 70.524101
0.57811737 -101.23306 71.854729
0.01280551 -100.70058 69.953186
-9.9999999e-09 -99.531281 78.121162
0.40125138 -99.573128 71.34713
2.2376819 -100.01676 76.521156
0 -98.965103 69.148102
0 -96.379509 83.854385
0.077853978 -98.322128 69.050537
0.25986654 -97.634254 71.635674
-0.0031888201 -97.427887 69.102844
-0.01376832 -95.433807 81.024094
0 -96.155899 69.640503
0 -95.549698 70.019096
0.4981243 -94.733383 71.084984
-1.5000001e-07 -93.333435 83.680756
1.8206266 -94.237244 72.444427
-5.1000001e-07 -88.735321 84.804214
0.12415852 -85.862709 82.871712
0.98722219 -79.320923 82.248146
2.5415986 -73.290558 80.631126
-0 -63.982685 107.1515
0 -66.343208 75.902924
0 -63.14463 70.612938
0.68415123 -55.42609 55.829117
0 -56.621964 105.59301
1.8868709 -33.984501 98.375237
1.718e-05 -23.285666 46.641014
0 -18.897005 97.248291
0 -13.431598 47.512371
0.23636591 -7.6497936 97.767281
-1.7553405 31.766146 57.840286
3.0054245 33.218239 98.865524
0 40.878292 98.440689
-0.63580084 51.523777 96.076561
0 53.796722 95.840866
-0 63.692024 87.458305
0 65.708679 88.485649
-0 75.203499 89.422974
0.52180606 102.35686 95.185677
-0 100.35843 90.58165
-0 144.47096 93.248024
0.38395214 147.45375 96.287155
0.95054102 153.39142 94.792381
-0.04223454 67.383202 72.974297
0.02362838 -60.605911 65.231834
2.1072054 -102.86858 77.13279
8e-08 -102.49211 98.928001
-0.11831564 -96.039032 107.91791
1.6148033 -109.53549 81.632248
1.0385818 -102.48824 76.140968
1.3993291 -104.49709 77.629875
3.5875189 7.2063074 48.421989
0.53040457 -105.79086 83.282028
2.3062196 -88.489906 112.10235
1.1213083 -37.642921 47.17075
1.3324556 53.219566 62.639793
0.65105301 -103.171 72.994698
2.5595675 60.954586 65.731522
1.2872946 47.413612 61.285271
1.2747834 145.21509 93.606972
1.5389266 58.372406 64.379082
0.71030599 -102.795 72.467003
2.0755208 31.821266 57.987835
2.2698636 -100.93493 72.000893
1.5968567 -99.304413 69.392899
1.7575465 -99.865829 69.656563
2.3437324 -103.05953 73.708809
0.75541598 -102.312 71.847
0.75101262 -105.99959 76.650772
2.1974616 -98.417618 71.481216
1.0916746 -98.770027 69.186462
1.7970645 -101.78363 72.282379
1.0940943 -101.12844 70.539619
2.2776442 -43.131691 48.180405
2.4473562 -103.70728 95.273453
2.1819639 66.751961 71.524254
1.4365278 -98.46714 71.467598
0.97135532 -96.135452 78.606651
1.6087303 -97.64315 71.630203
1.5895331 -96.324829 69.332787
2.6057391 40.508595 60.19561
1.2797749 124.45537 95.464218
2.316354 -96.853073 71.966492
1.3978442 -95.940155 69.65239
1.3223109 139.63165 96.076797
0.84189516 126.49763 92.551392
1.4213675 -106.17661 78.124718
2.2295773 -96.18045 72.298935
1.3405381 -95.355507 70.019417
3.1921482 -33.648548 47.094959
0.97004676 -106.76408 83.52137
3.6793544 22.907211 98.932655
1.8659377 -95.64418 72.678307
0.92074001 -94.821297 70.373199
2.4170868 66.490356 75.440895
1.0625401 100.86744 90.8545
1.7206908 -59.916836 61.557198
3.8070788 12.881287 98.701431
1.0283487 -105.43984 82.886635
3.2376211 -95.275261 73.071121
0.86206931 34.269768 58.602932
2.0035789 -94.20871 71.749046
0.5927406 86.475693 95.099289
2.8096838 -94.632904 73.568253
1.174857 85.135422 90.175545
2.10741 -99.408508 78.840439
1.9939877 -86.687859 83.088142
3.7873898 -46.598076 49.575035
1.337628 -93.961479 79.936073
1.3877745 60.105843 95.433495
1.6337317 -107.69203 81.590317
1.57891 -102.87436 72.857826
3.9998593 63.811977 68.415771
0.057992939 -62.013626 68.212837
1.9648545 144.8188 95.688393
2.4343741 62.701584 85.424583
2.702606 -75.019775 110.48988
1.781216 -70.017349 78.873764
1.7090542 -103.61104 76.936623
2.2468069 45.123135 97.5336
2.113554 -23.116613 46.935482
2.6479971 -66.631645 76.649117
1.6677372 -102.53255 72.327972
1.5139242 68.143951 89.272125
2.799825 -97.648819 80.752647
2.5482297 -102.18659 80.881599
2.6637537 -103.00552 98.505409
2.970999 -109.43317 83.154739
2.2168462 62.590576 87.07988
1.8973691 54.1138 95.242104
1.6672629 -102.17219 71.750992
2.0806046 -100.30838 71.758575
2.1812227 -100.28712 70.06311
2.1314662 -99.722313 71.600365
1.48084 -101.736 71.156898
1.51961 -97.721603 69.106697
1.9445568 -96.778824 80.19471
4.5702667 -81.694389 83.160164
1.55765 -96.806198 69.123001
1.8703749 125.83799 93.264145
2.3560884 -104.33993 79.261795
3.0570292 -92.372902 80.917198
2.2079103 144.77307 94.732155
4.8956847 -85.202919 81.931152
2.0157444 56.218323 62.758602
2.4560041 -102.31472 76.520485
2.0992107 -94.279831 70.444008
2.9151466 -88.251923 84.143463
1.9848303 90.014687 94.382858
2.0249088 93.776978 91.114731
1.5626016 64.167213 88.426186
3.5780644 -8.480732 47.601788
2.448163 25.08181 54.167408
2.0895381 -98.306404 82.868011
2.1523321 -94.266884 83.121109
3.0466783 -106.78269 78.6353
3.4866107 -95.125008 73.363564
4.2783217 -52.607479 52.267426
2.9995227 -106.93781 88.577332
2.018389 123.98637 94.749619
3.8774581 -61.192177 106.55403
2.8261595 -105.40003 78.738503
3.7189996 -48.390373 103.41664
1.4276224 -104.15128 76.370697
2.7749498 -106.15685 84.974136
2.7133536 -103.8006 76.635696
2.8009107 -101.07072 71.102089
2.3771088 -104.42091 79.052582
2.7903872 -99.55307 71.734055
2.7698627 -98.22316 69.37793
3.673244 -40.255783 47.821617
0.91394067 -42.408264 101.67562
2.1453102 -99.073486 71.499352
2.217097 -97.707771 69.112427
2.9636254 -94.755943 81.512672
3.9131186 -95.465874 107.59927
2.2265193 123.60951 94.056419
2.2035799 -96.786697 69.220802
6.4748945 -91.065643 109.57812
5.5313582 -10.961971 97.849159
2.5387149 -96.091202 69.465691
3.1828585 -95.219406 69.715515
3.6195934 -69.207199 79.198166
2.7380085 88.211205 91.678055
2.72521 50.608017 60.453106
2.4626377 -93.33075 78.718857
2.6656601 88.156326 93.615265
3.0768163 -94.587341 70.014984
3.6778471 -56.714001 56.210941
2.9109893 -91.650261 83.669106
2.9925096 64.145363 90.027695
2.9385238 57.613258 94.513794
3.6552758 -102.00246 79.306686
2.7573869 -100.52303 70.604622
3.1170607 -99.137344 69.802483
3.2573423 45.94577 59.877811
3.2217848 -99.976135 72.034592
2.9862351 -98.691223 69.533913
3.1852922 -94.21315 71.074722
3.9497762 -60.971649 65.258591
2.4862587 -89.279167 81.679672
3.38185 -94.114113 71.830818
2.9015095 -103.19947 75.971733
3.1976206 -96.67997 69.609627
3.3713374 -93.013496 79.04425
3.327121 -96.465263 78.42984
4.5784607 -83.002762 111.5437
4.419076 -97.73497 72.710297
2.80514 -94.235603 72.551697
2.9977615 85.533844 92.669792
4.1429868 -107.00659 80.789291
4.2584105 -102.74984 75.179848
5.8476782 -23.831078 97.27594
2.6279237 -91.127205 80.125542
5.5882421 64.892967 71.212631
4.5460882 53.051395 57.606651
3.1150448 -29.38179 97.63987
3.4441993 -100.45976 72.359497
4.719449 54.677937 93.442223
3.5621457 59.374119 63.020226
3.2114935 -99.609619 70.24971
3.1515803 35.36689 59.521881
4.445941 -100.82691 73.224106
3.8369501 -95.672653 73.105049
3.2451909 -93.842072 70.544548
3.1453259 -101.3088 71.579712
3.207021 -104.89941 84.085968
3.4845769 -104.88669 79.175964
3.6692617 -17.904446 47.826
3.0248642 -102.02968 75.50824
3.7427051 -107.12135 82.93763
3.8540449 62.908356 91.267006
3.3641624 -95.765465 69.778923
4.034821 62.544292 85.166458
3.7889464 -106.05273 83.940773
3.6223075 -98.062958 81.537857
3.8368111 43.026863 59.957073
3.5114975 63.730324 93.631607
6.3592072 -90.377975 78.828102
5.8421307 -101.02863 75.60759
4.2464824 2.3458843 98.160767
3.3708875 -99.289543 72.106712
3.6665266 -98.02478 69.877808
4.041678 62.225357 92.545837
3.4976537 -94.170845 70.388901
3.0463953 -104.43806 92.523521
4.055006 -94.024284 79.722382
3.516541 -94.553017 74.06002
3.6197369 62.398926 88.218147
4.2556872 -101.05849 72.296379
4.9608984 -75.6409 83.306259
4.3016853 -90.010742 82.519058
3.6304264 -99.87619 70.722305
4.7085338 -103.56714 77.906113
5.538909 -66.90731 75.18927
3.0905302 -93.573479 72.557762
5.7518082 -102.66338 75.752541
4.3157229 -100.73165 71.911583
3.8006938 -100.16605 71.144356
3.7419844 -94.932922 70.159821
4.0891199 -104.02984 79.376335
3.6710668 -99.057602 77.748238
3.5950649 -100.77708 76.653084
3.82687 -99.881592 79.332512
5.4863253 -61.931576 68.262688
5.4775481 -59.794788 61.087791
3.8768187 -97.603668 79.075813
4.1023769 -97.038399 70.144745
4.2489371 -77.348335 110.72436
4.392262 -98.018341 70.543251
4.7128801 -104.0869 79.165039
3.9466608 -98.758728 70.336746
4.0290861 -99.189362 70.572777
4.3210926 -97.172485 72.926575
3.3262346 -102.77623 79.082214
3.4364626 -93.610794 71.254982
4.129034 -97.003876 79.697067
4.3236427 -101.37724 79.192024
3.9747949 -97.069885 97.236862
3.9329481 -97.475204 78.364258
3.8673029 -93.39357 81.104805
4.1054168 -100.26577 71.585487
4.0914288 -95.666954 70.321953
4.1735601 -96.479454 73.016602
4.9951696 56.807072 57.2896
3.3296061 -79.934677 83.026344
4.2227979 -97.600609 70.267113
4.8547177 58.163269 92.551064
4.4536505 -93.074982 79.4991
5.1086078 -100.56525 76.181633
4.0509586 -90.795898 80.154373
4.6137638 -100.1747 73.174652
4.4394722 -92.619164 80.752525
4.0262804 -94.812225 70.98069
3.9672198 -96.58448 95.867706
3.9955707 -94.464745 71.031013
5.147388 64.871819 77.289383
4.8040223 -100.66028 95.447693
3.9949622 -96.448647 78.941826
4.2856355 -97.572861 98.309479
4.8476782 -97.14933 80.004662
5.834578 39.439911 59.988201
4.4464889 -99.622086 71.308777
4.4435749 -96.082939 70.596069
6.9374661 -25.742992 48.512363
4.9901819 -95.520302 76.219315
4.3946304 -93.846535 79.158615
4.3061066 37.51041 60.044945
4.8377814 45.917942 58.372787
4.8366647 -99.75766 73.281403
4.5575294 -98.354408 70.679337
4.9621887 -32.899075 47.499355
4.6682348 -98.606544 70.883888
5.1900802 -91.786629 82.48484
4.74648 -100.54917 73.354225
4.8452101 -105.9233 84.202477
4.4149699 -95.534302 70.766998
4.619071 -66.08831 107.77461
4.570291 -96.894966 70.637466
5.0642986 -98.940697 73.466248
4.5764408 -97.480309 70.643608
4.4483032 -99.877808 71.673744
4.8192611 -99.419846 73.229065
4.6587486 -100.72023 92.909134
4.7860494 -96.089958 94.744186
4.3560953 -102.78321 95.845177
4.4477835 -101.93716 92.350365
4.6414437 -83.424911 82.397446
4.6466198 -81.282402 78.440399
6.402184 -104.18142 78.408455
4.6846499 -98.965103 71.130798
6.2590499 -39.623413 99.671204
6.216363 57.311497 91.349037
5.0974422 -97.89563 99.191544
4.1885185 47.757996 96.372505
4.7480502 -84.201401 82.188202
4.7480502 -82.346199 80.245598
4.7480502 -81.308701 76.8433
6.3391194 -96.098 105.96342
6.5352716 17.235197 51.478722
5.2675333 -99.141685 96.135551
5.590755 60.147491 89.464561
5.8379726 -70.401031 79.955482
4.8112102 -97.974197 70.917198
5.3615799 -104.02084 86.783997
5.1780591 -93.030022 78.126854
4.8326602 -98.241203 70.999901
4.8977699 -83.243301 79.411903
4.8977699 -81.623497 76.553299
5.8547668 65.349144 73.706772
6.0283341 -105.3167 80.810844
5.8494639 61.988331 60.087658
5.9186621 -72.948326 108.72619
5.0398736 -98.428223 73.463623
6.3840094 1.3041102 48.090668
6.2517042 -41.650394 49.816357
5.0233498 -96.971497 71.170799
5.0438299 -97.557701 71.172302
5.5347543 -92.647812 81.340652
5.6292596 -100.71523 75.287399
5.05971 -86.0355 81.468697
6.5838017 32.168022 60.846355
4.7798829 62.341827 65.395775
7.266984 26.846529 98.274849
5.8309035 -92.201508 80.672836
5.3250856 -99.503235 94.175255
4.5856791 -102.8543 98.012871
5.8888135 48.411743 55.717796
5.6638479 -95.568512 74.75219
5.4192576 -44.601795 101.69018
6.7723017 64.450554 68.662086
6.4848132 -16.452559 48.395897
6.0153766 -100.50785 77.923897
6.4090548 -36.072952 98.877991
5.6812019 -36.169289 48.409901
5.6902614 -90.466164 81.138741
5.0691757 -98.331512 95.882683
5.9941168 23.825546 54.957977
5.3068709 60.148331 15.758908
6.9766588 -103.49155 83.625443
5.3527298 -83.917297 79.309502
6.4051285 -55.307133 55.310799
6.030097 -57.201481 104.98566
7.3753753 -47.574669 50.789318
5.63767 61.220318 13.989809
7.2173843 -60.60154 63.320557
5.77386 -98.997177 74.700035
5.8129134 -96.732872 81.40036
5.5513353 55.144512 9.0050526
5.8173456 57.833179 15.125857
6.6843882 59.442421 52.983028
6.6277332 40.544998 58.765823
5.7012534 -32.421471 97.863564
6.6351204 34.378593 61.112049
5.6397867 -96.874619 76.131546
6.6696181 -93.31974 75.652718
6.3977466 46.433502 4.0950108
5.9399981 58.002087 7.3121753
6.6213551 -98.210503 95.095383
6.8231645 -100.92133 97.142509
5.720252 -95.835258 94.376511
5.8873315 59.714138 22.615112
6.3690233 -95.923164 75.015129
6.3033037 -97.777992 80.158737
6.9143257 -78.635635 84.878456
5.69452 61.581932 23.426334
6.0112829 53.52042 4.3337374
7.1564584 -65.164978 73.639091
5.5205026 55.559448 7.5350933
2.2102351 51.131504 95.855583
6.274025 55.371384 53.510315
5.8533802 -82.384804 77.327003
8.2838411 -43.421646 51.102936
7.8134727 62.67263 83.989708
7.8828125 -33.70359 49.176254
6.1196365 62.937138 21.88109
7.4587197 -95.642632 94.034485
5.9972401 -97.780098 99.417999
6.8832836 -84.481766 82.349838
7.1200857 -88.986206 110.22278
5.8078675 -101.41832 100.87304
7.131752 53.910118 10.023843
7.0303144 -83.063446 80.738968
7.2852945 -94.665688 75.146255
6.7134972 -80.873489 109.9893
8.6093283 -47.831257 101.01483
7.4375219 56.732712 27.645494
6.4685912 -85.257179 81.900284
6.5695567 46.811817 0.94031429
6.6666636 -76.248375 83.988182
6.2722106 0.22811556 97.889061
7.8842702 -79.252983 108.6142
6.2816601 -81.433296 78.408997
7.2313919 53.089428 1.7788249
8.3273573 49.68055 94.227646
8.1295595 43.745495 53.342407
6.9653749 50.764408 52.288021
6.5570812 58.564983 23.30345
7.8435225 -5.8469934 48.023743
6.3776598 -86.149902 81.473
7.0459695 -92.846977 108.08149
6.75037 63.373665 15.163889
6.9289784 50.857067 1.991028
7.3908234 9.6429739 49.292194
7.0766182 -100.40218 89.088104
6.9924741 -95.127007 79.232361
7.1917882 -4.4776793 97.765877
6.8074479 37.413002 97.663979
7.3003521 -83.792809 83.020073
7.5266328 62.014183 10.791041
8.9697552 -82.216537 77.763481
6.7134008 60.012821 28.34108
7.5623136 56.80127 30.043793
8.2822247 -75.335793 108.18874
6.8431234 -62.007561 105.53094
6.5645161 -95.689072 94.235947
6.5909901 -87.131401 80.825897
7.0786934 -94.604317 81.685066
7.5607934 57.105476 18.664762
7.6701865 60.570087 87.78714
6.585422 49.051243 7.9412246
8.8294735 -84.496651 79.936363
6.9479814 59.668724 6.6168723
9.110466 -32.489174 49.387161
6.6827998 -81.547203 77.002701
9.6280956 -97.761772 95.40696
8.4430065 -10.247346 48.22002
7.275445 48.611786 0.79393566
7.5946922 -70.128311 79.922249
7.611804 55.691639 2.7626998
8.6583319 -51.278141 51.644787
7.2045054 62.306774 28.063059
7.6751175 -90.964531 79.097191
7.3158007 44.0158 0.90992457
7.3549972 63.551003 59.293465
7.81458 -101.9874 81.778816
6.8953614 -97.905983 99.720123
7.680511 -100.68764 85.994926
8.0719309 -99.376518 77.593102
8.0781622 -64.160484 73.514427
7.8615789 55.920746 13.756433
7.0232 -84.225502 79.267303
8.6225119 64.992722 73.119812
7.7041683 61.569981 51.602009
7.431561 32.114143 97.898109
7.314517 45.470242 5.0745225
7.1064301 -81.947098 77.0215
8.3875055 59.010265 35.989067
8.323535 56.889996 22.489927
7.8221574 -100.80882 98.495781
7.17133 -82.4991 77.448997
8.0332642 -55.554493 103.52955
7.5815539 -100.30071 100.82679
6.9278603 -67.204292 75.960983
7.5712271 -96.016708 76.626427
8.4061241 -14.40645 48.667114
7.8065987 -85.625198 82.437317
8.3381472 29.131477 59.395584
8.0706501 -87.450836 110.55782
8.3134642 61.290283 7.1989942
7.9197659 54.014484 47.974857
7.2848215 64.710968 24.729153
7.3792124 -93.845551 107.04807
8.9192381 45.224655 0.37886107
7.4074001 -86.4291 81.772202
7.5794201 -98.860298 97.503662
7.4288301 -89.340302 80.028503
7.6216617 -88.513741 80.453896
7.428122 -92.26796 82.473579
7.6796885 -83.342857 83.547104
8.320467 -26.026312 96.832253
9.0913382 -97.446236 96.122406
7.5853701 -87.425697 81.117798
7.8054209 -33.314789 97.377892
8.8303385 -38.058189 51.271198
7.7491326 -98.37677 92.11129
8.7848139 67.69696 25.905867
8.5838289 -72.511208 82.62693
8.0371828 55.967045 2.1329234
9.2414227 -74.211929 106.99376
8.4436703 46.607227 50.392937
7.73631 -97.560898 99.397499
8.7987518 66.360191 21.523472
8.1933737 41.688919 54.804996
8.1066666 56.118595 26.39711
8.417325 43.345741 2.7047179
7.6446915 48.819019 8.6960173
9.04356 -55.044441 54.388935
9.6612206 52.092327 9.7868023
7.88098 -81.687599 78.7528
9.7786818 -44.458954 99.776024
8.1411314 58.799427 45.912758
8.7502136 60.137974 37.042717
9.8424244 0.37298608 48.6698
8.395771 -62.018898 104.05341
8.229207 -91.241547 79.501083
8.8127537 -13.609742 96.976532
8.4591637 -95.593353 104.53918
8.4141054 31.910685 61.010368
8.2562304 -95.676384 94.683365
8.507165 -92.858612 80.398102
8.7533283 -90.347549 80.961769
8.8603001 34.519253 60.808414
8.2898865 64.167374 60.397415
9.2286634 21.039454 54.036774
8.3454084 -67.179375 77.498985
8.4294729 -95.215973 80.417915
9.9788151 -62.070225 71.626389
8.9913483 64.109238 29.375969
8.340374 -90.878586 109.88734
8.2054796 -86.841202 82.321404
8.5091791 -46.640499 8.6391029
9.7734537 48.980534 43.892315
8.3324509 -87.89933 81.623878
8.9464016 27.860987 97.310768
8.4395599 -98.348297 83.891167
8.2199984 -43.208874 11.415216
8.4982738 64.755074 15.415247
8.2848501 -84.328903 79.682999
9.2789974 61.130566 43.952377
8.5670366 -97.371422 99.063255
8.9684134 52.566875 35.063545
8.3876534 -93.374619 81.292244
9.2582207 48.957432 0.40175733
8.6155453 -91.157631 80.482414
8.406168 -88.139069 107.42426
8.1372614 -43.481266 100.39725
8.0625505 -35.497574 50.314735
9.0788202 -57.941463 58.432838
9.7515087 -93.030983 105.72474
9.0170717 53.147751 42.553616
8.9323053 -95.814468 95.227394
7.883287 -44.122677 8.2311134
8.7463636 -45.173233 7.4072561
8.6151381 -44.758957 50.590714
8.7122536 -40.220245 50.654232
9.0064516 -41.689823 15.128335
8.6410599 -98.355789 79.009071
8.3654423 -97.49279 91.044655
8.9406099 -40.607666 10.531435
9.5798941 61.271553 36.929733
8.4292879 10.721824 97.944824
8.9085693 -78.472977 86.663139
8.5351601 -81.884903 77.424103
8.9024696 45.775257 6.5041056
8.2415714 -84.149124 110.18212
7.6824136 64.761299 78.366188
9.9595098 54.629864 11.47057
8.7173014 58.840656 41.190865
9.8531132 48.617954 8.8079805
9.468092 -99.093147 97.25621
9.0191517 -49.129185 50.78223
8.9230366 43.163475 0.906214
8.6979046 -87.217751 107.82641
9.6498241 -37.623898 97.640739
9.6544352 18.172159 97.386925
8.6827879 -93.356544 82.455254
10.257319 -86.09185 85.40567
9.5546789 -96.858704 87.535324
8.2641106 59.436844 4.9285827
9.3720503 -98.607536 99.825027
8.7163191 -45.141029 49.410675
9.2387209 -68.358009 80.678642
8.7480888 -43.762028 47.253841
9.7967882 -70.230431 105.12675
9.745471 -90.520882 107.1394
9.847002 -84.010223 82.385994
9.8450413 -87.106133 84.929489
10.11063 -56.309929 101.73646
8.9160089 -87.418137 83.070923
9.2934837 -96.930611 98.240974
9.1439104 -20.616117 49.481133
10.708914 -59.068447 62.491001
10.898273 65.357491 78.109756
9.0504761 -93.11763 83.600372
9.742034 -81.215569 107.73576
9.4688339 -92.812988 106.80257
8.930233 -53.49918 4.1573811
9.197053 -40.075546 47.205898
9.5632353 56.672703 17.603157
9.4468327 51.082417 42.546143
8.99228 -82.832199 77.814003
9.881155 -76.897415 87.701225
9.2556553 56.751881 90.812302
10.38207 55.449486 25.293093
9.3327789 -55.707848 5.6965113
9.7453489 -86.376724 109.5966
9.3729525 -53.253456 1.9295801
9.1468248 -90.149994 82.461113
10.5486 -31.082399 49.967567
9.3840446 -57.258717 1.612167
9.5070181 52.258163 32.019585
10.454495 57.273216 2.4222884
10.374562 -91.382454 108.56207
9.5820417 -43.213436 15.135956
9.4163876 -96.041626 96.137054
9.2230463 -87.73806 109.7971
10.179903 67.174057 21.676746
9.9685955 -63.412395 75.714371
9.1775017 -90.614441 83.104538
9.2151098 -85.889999 80.422096
9.2482347 -88.960526 82.852531
10.832695 -85.231087 86.10144
9.8174181 65.511932 29.923693
9.2612896 -82.872704 85.065498
9.3306284 -41.419647 20.496428
9.2684097 -87.215202 80.534798
9.7444077 -90.143044 84.885658
9.9065733 40.007915 53.972485
10.719477 -5.8387151 96.464607
10.858391 52.536652 30.516428
9.6766558 -42.322041 41.376545
9.6457663 -47.274937 9.6730251
10.284629 63.227348 10.785929
11.132834 -80.99411 87.618385
9.401783 -2.010318 97.09037
9.6404266 -95.079491 92.066223
9.8940277 -38.160873 19.455519
10.513636 -93.770195 90.864227
9.6727133 -91.875572 109.15779
10.334214 62.041042 44.109825
9.43783 -91.594101 84.275002
10.31813 44.610703 94.279602
9.5605621 -88.237061 84.414276
10.340614 -28.646841 95.822784
